-105.66399999999999 26.9368 1.34583 1.92256 0
-98.68329599999998 27.064699 -0.0992079 1.74982 0
-81.80490099999997 27.0569 -0.289179 1.78279 0
-81.14399700000001 26.9671 -0.236573 1.73309 0
-80.36180100000001 27.0361 0.205278 1.4386 0
14.45 26.08 0.606689 1.47225 0
33.007679135 25.8229465225 0.426299 1.00916 0
34.0756012286 26.0187432082 0.150537 0.567721 0
34.58 25.62 1.3539 0.601132 0
36.8363810096 25.8812761671 1.64048 0.314365 0
39.2608084507 25.7897539498 1.08674 0.671059 0
42.36 25.7880001556 0.749757 0.738949 0
43.1943737129 25.8554648466 0.356778 0.9112 0
49.38 25.87 -0.666726 1.25683 0
109.075390386 26.2263955511 0.189159 1.13922 0
109.947766321 25.8017418598 0.455783 0.748267 0
111.1 25.9 0.148667 1.66106 0
111.803148607 26.2679824031 0.117862 0.585816 0
113.011473878 25.787358226 0.389899 0.746998 0
114.251840258 25.9411522816 0.64352 0.752861 0
115.020595218 26.1138013486 0.458549 0.465342 0
116.126835292 26.0171570906 0.356451 0.375337 0
117.111772606 26.0341930274 0.492272 0.390023 0
118.023442637 26.0086810897 0.599685 0.421765 0
119.114725438 25.9857750882 0.379377 0.392774 0
119.741302224 26.1625804939 0.119981 0.371737 0
-111.36132898299999 26.0157745781 0.84474 0.815734 0
-80.98990845700001 26.1900396775 -0.237344 1.00391 0
6.11 25.01 1.2421 0.876139 0
34.6443678269 25.2020795349 0.430189 1.03307 0
37.31 24.9933731832 1.58789 0.46004 0
37.7373874331 25.0296797674 1.05791 0.312026 0
39.04 24.67 0.796006 1.10882 0
39.712544051 24.8026697931 1.15021 0.551086 0
42.48 24.56 0.68194 0.956075 0
46.2 24.9 0.838558 1.21821 0
46.6442216149 24.720347458 0.408788 0.952446 0
49.6921868045 25.1899502999 -0.352143 1.41327 0
50.64 24.8 -0.539967 1.1091 0
54.2339 25.22 0.0267416 1.52502 0
55.213925634 24.6044987645 -0.21059 1.03765 0
72.78 24.65 0.0942098 2.13279 0
109.3 25.0 0.16637 1.59306 0
110.419501266 25.2172308148 0.31799 0.764488 0
112.359365945 24.9176900811 0.35605 0.710064 0
113.99171272 25.0898548451 0.506896 0.574354 0
115.072375289 24.9554526523 0.520085 0.665857 0
115.781389351 25.0 0.585399 0.754003 0
116.827785101 24.8603307591 0.454073 0.692023 0
118.05753415 25.0333896075 0.352799 0.324054 0
118.888459591 25.0871903745 0.303081 0.405402 0
-107.73933 24.73088 1.1409 1.01527 0
-99.4656 24.8982 0.74235 1.31188 0
-81.052299 24.726601 -0.236567 1.72329 0
5.55 24.06 0.957698 1.92851 0
23.13 24.1 0.154214 1.73649 0
28.9546 24.3195 0.104343 1.70879 0
32.4074 23.5217 -0.27057 1.95557 0
32.8165402033 23.7900580704 0.475088 0.61652 0
34.1143 23.8559 0.667168 1.35798 0
37.8931644519 24.3171224701 1.21196 0.457509 0
39.2144564061 24.1433025366 1.05769 0.571474 0
39.9909410588 24.2466311824 1.12501 0.494708 0
43.0304242468 23.9292000004 0.796134 0.78306 0
45.1676534028 23.8530853521 0.619873 0.888707 0
45.5004320361 23.5210800902 0.525362 1.23951 0
50.85 24.05 -0.803547 1.13582 0
51.6913 24.0696 0.145373 1.48561 0
52.9598663334 23.7790449402 0.0957833 0.893357 0
53.8799 23.761 0.263325 1.45133 0
54.9243442775 23.9090269925 0.256341 1.03938 0
70.191434722 23.7525588591 -0.37962 0.727266 0
70.6967066523 23.8249777972 -0.436043 1.1227 0
71.8704870002 24.0331008808 -0.281941 1.33433 0
78.42 24.24 0.175201 1.73313 0
79.1924356705 23.9085406607 -0.28791 0.621087 0
79.62 23.65 0.0331348 1.80268 0
108.935183996 24.1188696717 0.253424 0.599563 0
110.155656004 23.7608588278 0.340796 0.56358 0
111.146824883 23.6691889151 0.33043 0.72411 0
112.000992397 24.1030190926 0.402122 0.440237 0
113.197979593 23.7253298333 0.459128 0.51892 0
113.956783011 23.9451702203 0.422589 0.409362 0
114.925196161 23.8511364271 0.373462 0.426308 0
116.107305612 23.9798685526 0.381154 0.421606 0
117.200780032 23.9422577397 0.432305 0.410454 0
117.783972056 24.2512022507 0.337376 0.412191 0
-111.10642999999999 24.3981994629 0.409671 0.970122 0
-110.21978366100001 23.9667357778 0.560899 0.822179 0
-104.13265723699999 23.9131001095 1.0081 0.979738 0
5.53 22.79 1.04195 1.82728 0
32.3871753701 23.1673031015 -0.245488 1.38072 0
32.6242408245 23.3349575341 -0.20208 1.33731 0
39.36 22.59 0.321575 1.03146 0
44.3637561637 22.9041019095 0.448526 0.70236 0
53.4794 23.0024 0.228972 1.49126 0
54.32 22.95 0.127749 1.54952 0
55.2831383683 23.0697278628 0.229347 1.05007 0
69.0509221324 23.2303684501 0.405927 0.970215 0
70.0236215044 23.2394705468 -0.252507 0.474564 0
70.7203066265 23.1243681175 -0.320703 1.10382 0
71.58 22.73 0.0291304 1.59004 0
72.65 23.2 -0.203044 1.75629 0
73.85 23.29 0.0816525 1.59259 0
77.4171339105 23.222845214 -0.0669184 1.45951 0
79.1291547826 23.1083996653 0.220095 0.478881 0
80.14220437 22.8711581012 -0.197381 0.532057 0
86.11 22.63 -0.263946 1.12163 0
88.2937293771 22.7 -0.225539 0.863239 0
108.5 23.0 0.602623 1.34048 0
109.855011105 22.8970302863 0.367636 0.491507 0
111.23 23.48 0.266318 1.43887 0
112.273691026 23.1632672347 0.433046 0.808696 0
113.018246367 22.929269494 0.435396 0.47698 0
114.044631077 22.9224181154 0.364626 0.401061 0
115.379951654 22.793845972 0.308529 0.806001 0
116.026791774 23.1819991566 0.296909 0.512917 0
116.691661596 23.3469756693 0.300247 0.700145 0
-109.79162951 23.1244798805 1.03159 0.572084 0
-102.56700000000001 22.7692 1.94417 1.92764 0
-83.014134851 22.7815505693 1.01867 0.572705 0
-16.075831719000007 22.6414963171 0.688155 0.460722 0
39.42 21.72 0.551716 0.949225 0
40.184881441 21.795682142 0.706924 0.710543 0
43.36 21.53 0.758279 1.02271 0
43.86 22.3 0.675504 1.04835 0
57.0594813845 22.303671389 -0.0967647 1.04942 0
57.992588548 22.2071745836 -0.108386 0.917156 0
59.1181364392 21.8817078344 0.0322489 1.15986 0
69.04 22.29 -0.52893 2.03372 0
69.8286906693 21.7178234988 0.0314113 0.940703 0
70.76 22.36 -0.131127 1.73414 0
71.95 22.3 0.192374 1.2739 0
73.1411816809 21.9813220955 0.0355825 1.10326 0
73.71 21.88 0.14147 1.54422 0
79.45 22.13 0.15915 1.91169 0
82.72 21.64 0.0065702 1.73409 0
85.748860974 22.2488196664 0.233802 0.80884 0
86.83 22.0533297193 -0.533104 0.851889 0
108.31524592 21.9749558368 0.271611 0.824595 0
109.077693569 22.1223965362 0.375313 0.438363 0
110.109866214 22.081690555 0.461033 0.556647 0
110.928253689 22.0138888196 0.444974 0.381756 0
111.909332948 22.0223707681 0.265208 0.385065 0
113.017711518 22.1725982297 0.468308 0.401269 0
113.895615807 22.3158135245 0.317975 0.568456 0
-98.38 21.52 0.0772952 1.54596 0
-15.843049339999993 22.4417145894 0.701165 0.713306 0
-15.180000000000007 22.31 0.496734 1.40377 0
37.22 21.16 1.64825 0.606752 0
39.9148916141 21.2713531659 0.655319 0.640102 0
40.52 21.06 1.24493 1.36046 0
42.8356639178 21.172604753 0.67384 0.588014 0
70.9412939518 21.0799845332 -0.218964 0.756165 0
71.58 21.24 -0.0176682 1.26756 0
73.2095025779 20.7919896885 -0.390858 1.35939 0
73.672649077 20.6253425541 0.290544 0.714986 0
78.8585589391 21.0367346353 0.193525 0.595421 0
82.9925361561 21.0425879882 -0.25318 0.827414 0
85.195431705 21.0054837571 -0.520135 0.757557 0
86.3900415307 20.8933510741 -0.395152 0.791339 0
86.66 21.34 -0.547362 1.22877 0
110.393843715 21.3969218576 0.566547 0.727869 0
111.0 21.44 0.374536 1.34499 0
-104.5207 21.0538 1.14439 1.60956 0
-100.451583546 20.69875 1.87579 1.15086 0
-98.65930322000003 20.8254227915 1.1211 0.566465 0
-98.35476030199999 21.3633221127 0.277066 1.0196 0
40.4101088775 20.276998329 1.17887 0.517109 0
41.604609245 19.9190006479 1.63764 0.891922 0
43.3327978024 19.6108057421 0.627254 0.772845 0
73.2421630916 20.2185098544 0.037602 1.1978 0
73.9538539109 20.2581769869 0.495891 0.591392 0
75.0802857374 19.6930661936 0.290121 0.850564 0
78.57 19.65 0.017428 0.773532 0
83.9508163819 20.2490254395 -0.353202 1.32675 0
85.1216880444 20.1874780669 -0.406838 1.16745 0
85.6898656997 20.2165637352 -0.297014 0.691367 0
109.237751924 19.6714025497 0.194888 1.03209 0
110.055939632 19.6230091974 0.526366 0.501061 0
110.715604689 19.9070106035 0.505209 0.643658 0
-105.41999999999999 20.4 1.08915 0.884704 0
-98.82125676999999 20.0765148687 1.7297 0.472096 0
-97.56343398299998 19.9734114746 0.748865 1.46692 0
-97.251909093 19.7196958027 1.48715 0.763456 0
-88.60000000000002 19.7262 0.449064 1.32585 0
-88.27619030699998 20.2261903073 0.758992 0.849934 0
42.2037104175 19.170314692 1.78694 0.855078 0
42.5652040589 19.2282660558 1.09806 0.836721 0
73.1227608954 19.0617483015 -0.271708 0.881213 0
73.8498137629 18.5298137629 0.605293 0.754654 0
75.9504939726 19.0909412671 0.175663 1.03387 0
77.019716818 18.882735814 0.381824 0.599753 0
105.372 18.505 0.420208 1.36487 0
105.717870026 18.6655743646 0.297131 0.697157 0
108.91963333 19.0065090067 0.330805 0.739406 0
110.022878518 19.029532269 0.404164 0.448941 0
-99.235663821 18.911912846 1.05691 0.509631 0
-97.55460773700003 19.0110900214 1.79727 1.08441 0
-96.96599191600001 19.0266521114 0.998164 0.532006 0
-96.31339294399999 19.1557724516 0.435696 0.688052 0
-95.10000000000002 18.64 0.196889 1.52343 0
-91.1866 18.967 0.0407055 1.53006 0
42.3635749783 18.171557967 1.27181 0.591619 0
43.5406683395 17.7035441185 1.61576 0.966898 0
54.0675009369 17.6246878036 0.394025 0.810117 0
55.62 18.02 0.150833 1.63995 0
73.5283 17.5162 -0.328833 1.90309 0
76.865067434 18.1498209453 0.577731 0.695226 0
78.2087821119 18.0833782688 0.546701 0.505608 0
78.69 17.57 0.608338 1.07127 0
79.63 18.05 -0.434308 2.19629 0
80.5961004198 18.0059972011 -0.0449169 1.19196 0
83.3133532658 17.7089021772 0.0322453 1.10447 0
101.624192432 17.5091443241 0.221672 1.16984 0
103.145904409 18.0632389765 -0.201705 1.3094 0
109.242911394 18.3512787382 0.255539 1.01346 0
109.825101686 18.5 0.35173 0.842084 0
-99.54566309500001 18.0142136231 0.835555 0.449656 0
-99.16264600699998 17.8493832776 1.28898 0.684876 0
-97.98737805399998 17.9720416451 1.31774 0.957038 0
-97.093857405 18.124350108 1.39081 0.634945 0
-96.07135432000001 17.9532469619 0.225177 0.756739 0
-95.08240816 18.0070190237 0.130296 0.392731 0
-94.42250000000001 18.0338 0.783367 1.16364 0
53.406385956 17.0092477843 1.00782 1.00397 0
54.1281325296 17.2187004583 0.736741 0.601824 0
54.523 17.113 0.908986 1.3392 0
73.9489505713 17.1564842765 0.237887 0.361135 0
77.6594940555 16.8701686482 0.538066 0.674302 0
78.8134308071 17.3150557704 0.470761 0.448767 0
79.73 16.63 -0.0344427 1.16406 0
100.968881953 16.5732409125 0.390165 1.33947 0
104.612 17.148 -0.325422 1.96186 0
-99.46425065300002 17.4256555032 1.14629 0.898319 0
-97.81693616799998 17.1247404294 1.25758 1.31862 0
-96.97982564900002 16.991845797 1.48984 0.824963 0
-96.30545336900002 16.9893213066 1.34228 1.32938 0
-95.00598463400001 16.861394712 0.255091 0.505003 0
-93.1223 16.7782 0.934197 1.48183 0
32.41105223 15.71638949 0.114639 1.78466 0
32.73479947 15.85777722 0.260819 1.66238 0
43.02184 15.72752 0.916228 1.13156 0
73.498 16.053 -0.497152 1.43368 0
73.6864071688 16.0863285537 -0.306246 1.02715 0
74.6507190341 16.1214380683 0.0285245 0.963405 0
75.8915926253 16.3396018437 0.274635 1.01945 0
76.95 16.2705204718 0.239558 0.858012 0
78.7964220976 16.2236827713 0.443745 0.555854 0
80.2961530465 16.2541928151 -0.199314 0.671564 0
107.58 16.411 0.296699 1.40565 0
-95.037408277 16.4774082767 -0.0579218 1.14763 0
-92.1368 16.2818 1.69045 1.58906 0
32.507332 15.20976767 0.354371 1.57771 0
43.2713599046 14.9226954568 0.943582 0.480229 0
44.0040639241 15.1511402203 1.97827 0.727764 0
74.0849369034 15.1061766929 -0.275652 0.624966 0
74.9195689001 15.3216001966 0.269571 0.509644 0
76.0721008129 15.2836621538 0.180145 0.711699 0
77.0813072435 14.8938795013 0.333443 0.561891 0
78.0958973475 14.6771672315 0.115165 0.635399 0
79.0279687675 15.0624291812 -0.0302619 0.665693 0
79.7293701107 15.2257634574 -0.0292482 0.569763 0
38.98 13.68 1.50488 1.88349 0
40.4430136827 13.5693664483 2.1663 0.313345 0
43.25408 13.80802 0.85201 1.13243 0
43.64 14.12 1.09669 1.31321 0
44.9036019147 13.8102607243 1.54922 0.796762 0
45.567 13.975 1.74183 1.74557 0
74.9621793211 13.8590657571 0.133399 0.593902 0
75.9304665326 13.8772869509 0.272972 0.419474 0
77.2063594647 13.8136316436 0.424991 0.439394 0
77.868023862 14.1325099832 0.244755 0.593693 0
78.8178096675 14.4841573624 0.0676391 0.488756 0
79.6410483774 14.2993010817 0.0422376 1.15186 0
101.320951785 14.3150964291 0.184725 1.17678 0
108.991 14.033 0.367974 1.38087 0
-85.85300000000001 13.574 0.279715 1.73539 0
-16.95999999999998 14.39 0.509752 1.27915 0
-4.009999999999991 14.5 -0.278166 2.05631 0
1.7 13.14 -0.266064 1.97817 0
37.45 12.56 1.72392 1.87808 0
39.1179173759 12.8984050237 1.63335 1.31391 0
39.98 13.35 2.38353 0.958521 0
40.9540654087 12.9340550667 1.45352 0.541656 0
42.32 12.6 1.53288 0.75236 0
43.25631 13.31374 1.00067 1.0665 0
44.116 13.231 1.97315 1.32963 0
44.8844318713 12.9915309161 1.15134 0.765102 0
53.4445994157 12.5802380862 1.12632 0.544613 0
53.7592947342 12.5961612094 1.21556 0.278534 0
75.2161756244 13.0693274366 -0.0497214 0.494351 0
76.0012638005 12.9430738685 0.467373 0.458737 0
76.9695857279 13.1769502864 0.527283 0.390304 0
77.7981909629 12.9965704203 0.746686 0.411044 0
79.4473583444 13.1415849934 -0.0741208 1.22232 0
80.25 13.07 -0.417672 1.34011 0
102.352741711 12.7440645723 0.268028 1.12597 0
109.293 13.111 0.429234 1.32614 0
-86.71242931799998 12.5847921383 0.473761 0.800525 0
-86.27612746400001 12.8528593896 0.416866 0.622718 0
37.39 11.57 1.19664 2.13401 0
38.0 11.86 1.80686 2.13279 0
39.0738581688 11.7172427785 2.12169 1.0391 0
40.1206711175 12.0941604522 1.69202 0.386951 0
41.0928941398 12.0538344591 1.30423 0.304898 0
41.9231152622 12.1431024538 1.44158 0.368996 0
42.85 11.53 1.3866 1.04497 0
53.7637998106 12.4307138896 0.673873 0.54621 0
75.42 11.8390138386 -0.631118 1.23946 0
75.9171445012 11.9250422359 0.0156309 0.974832 0
76.7607540793 12.1056164527 0.302853 0.470361 0
77.9754343487 11.7179284936 0.163895 0.768906 0
78.8289540638 11.6505229681 -0.155433 1.28821 0
108.481338503 11.9496304758 1.27603 0.965141 0
108.885 11.64 0.15216 1.50132 0
-86.705248299 12.4358613652 0.172743 1.11674 0
-86.12343883800003 12.1414136648 0.261183 0.711632 0
-85.127115382 11.8668017085 0.13675 0.900709 0
-84.078298771 11.8361782605 -0.0979492 1.20126 0
8.12 10.99 0.609398 1.60312 0
14.37 10.62 0.351529 1.58963 0
40.3241772933 11.21563297 1.44826 0.857363 0
40.713241042 10.892952533 1.65322 0.692245 0
42.2499025264 11.084966859 1.2503 0.720053 0
45.60419 10.75869 1.05201 1.04922 0
76.2214450218 10.8568656968 -0.489854 0.685935 0
76.9983443434 11.2492016698 -0.000538196 0.563397 0
77.9644618846 10.8714602047 -0.273883 0.581911 0
78.8128927779 11.045024243 -0.201108 1.04831 0
-84.74055442999997 10.9979086594 -0.139319 1.1997 0
-84.39999999999998 10.719 0.208183 1.47981 0
7.6334 10.4334 0.636936 0.892935 0
9.1167 10.1168 0.669798 1.08391 0
13.95 9.76 0.661585 1.35763 0
15.26 10.33 0.460819 1.47364 0
28.7 10.06 0.825259 1.72956 0
29.92 10.25 0.793674 1.96918 0
38.1616356958 9.99989652042 1.77911 1.24156 0
38.835620806 9.75048039593 1.90957 1.33788 0
40.0924011169 9.8226897744 1.69524 0.555327 0
40.541801464 10.1931091689 1.81914 0.398942 0
42.57 10.38 1.40293 1.31126 0
45.6231369505 9.7646995228 1.435 0.897217 0
77.0502592494 9.87830392501 0.535994 0.460876 0
-75.17000000000002 9.89 -0.0150822 1.78587 0
-67.33999999999997 9.55 -0.168381 1.83903 0
-63.84681300800003 9.71246674795 -0.630299 0.872417 0
13.38 9.35 0.810615 1.24411 0
13.61 8.86 1.10337 0.70202 0
36.5937380379 8.98181398136 1.69898 0.786053 0
38.2262302952 8.8345566311 1.38263 1.06223 0
39.0376795082 8.83668805138 1.844 0.390853 0
40.0400846631 9.04464511625 1.22738 0.3496 0
41.0069680963 9.22749560738 1.53687 0.712716 0
42.0599162884 9.36515347121 1.81393 1.19226 0
45.73534 8.71734 0.518113 1.7718 0
76.970055868 8.77368087123 -0.06147 0.395255 0
-75.66000000000003 8.77 0.740305 1.20004 0
-68.041 8.943 -0.473137 2.04312 0
-67.38501766399997 9.06560827891 -0.30729 1.10465 0
-66.26567741299999 8.85369449519 -0.367165 0.810324 0
-64.82069999999999 9.4608 -0.273461 1.85567 0
-64.21604688000002 9.03984604413 -0.0192386 0.563266 0
-62.901915617999975 9.17516717517 -0.606961 1.07953 0
4.5334 7.5334 0.212897 0.955714 0
13.24 8.47 0.741875 1.47281 0
13.56 8.0 1.41174 0.699441 0
36.33 8.44 1.66855 1.72996 0
36.83 7.68 1.61131 1.73324 0
38.0251220797 8.02689807284 1.94943 0.940977 0
39.0174149027 8.11535528973 1.50041 0.647503 0
39.8747635318 7.99193501736 1.83562 0.546511 0
45.83372 8.39776 0.393742 1.83907 0
77.295269243 8.26919846425 -0.0939736 0.7557 0
80.543 8.396 -0.190893 1.25547 0
-65.94400000000002 8.328 -0.668762 2.33296 0
-63.797857841999985 7.98574216291 -0.372778 0.53259 0
-62.80373506699999 7.82814761858 -0.271051 1.02765 0
-61.98294776 7.92951736136 0.0862498 0.979572 0
0.44044504683 6.61267028098 -0.0738209 0.952426 0
7.42 6.87 0.711823 1.37942 0
11.81 6.76 0.777863 1.83022 0
12.67 7.36 0.903092 1.70839 0
13.8269239626 7.04776149596 0.844996 0.747963 0
37.18 7.15 1.36712 1.63688 0
38.47 6.93 1.53535 1.83594 0
39.0526697047 7.0901756664 1.85871 1.08304 0
40.1719825952 7.2615084236 1.84894 1.34118 0
80.7010237352 7.27153560273 0.215553 0.936847 0
116.35092 6.7095 0.237737 1.04272 0
116.990462817 6.79039634209 -0.00504275 0.834498 0
-69.483 7.001 -0.700209 2.3259 0
-66.84279748699998 6.58605062829 -0.176945 1.27285 0
-66.322 7.326 -0.302394 1.86208 0
-65.03786365000002 7.42538935044 -0.468285 1.17104 0
-64.0 7.45 -0.63938 2.29616 0
-63.335538351000025 7.21276242871 -0.357601 0.881373 0
-61.736067451999986 7.04008333218 -0.0518247 0.865752 0
-4.860000000000014 6.68 -0.235755 1.8329 0
-0.128139038808 5.97710190366 -0.234385 0.553329 0
9.36 5.72 0.277736 1.47482 0
10.05 6.22 0.841571 1.59342 0
11.0394138981 6.14326009265 0.898531 1.28629 0
12.31 5.55 0.682524 1.71152 0
12.9447566585 6.47499625628 0.697003 1.21048 0
36.42 5.67 0.810933 1.46839 0
36.6547195049 5.65174086646 1.45954 1.07909 0
37.8184787234 6.1057893617 1.6653 1.12537 0
80.681 6.087 -0.234586 1.267 0
116.179590778 6.03834107453 0.350401 0.332695 0
116.956033328 6.07969906545 0.507893 0.343902 0
117.779803194 6.03649097654 0.078597 0.603717 0
-61.46100000000001 5.843 1.10065 1.75574 0
-53.94 5.74 -0.241743 1.73138 0
-1.4370999999999867 6.4647 0.17286 1.18791 0
9.46 4.59 0.523623 1.35755 0
9.93 5.03 1.02715 1.5928 0
10.57 5.48 0.869153 1.70848 0
18.42 5.17 0.0913541 1.92811 0
37.0128516726 5.10243435947 1.27377 0.71033 0
38.2611803421 5.0897103991 0.960664 0.888025 0
115.17476 5.28108 0.527738 0.931286 0
116.037602888 4.97161146633 0.339646 0.4687 0
116.973172554 4.98785961804 0.578945 0.381333 0
117.884520503 5.15962668243 0.0413077 0.687918 0
-67.656 5.42 0.167704 1.51554 0
-52.62139267499998 4.93806947771 -0.405511 1.10577 0
-52.389999999999986 4.7 -0.273642 1.79178 0
9.33 4.23 1.14176 1.24435 0
10.9861686347 4.06742973554 0.198823 1.37342 0
11.63 4.48 0.174781 1.83499 0
13.19 3.98 -0.107079 2.33382 0
15.03 3.52 -0.0146793 2.07591 0
18.55 4.44 -0.157084 2.07816 0
35.45 4.14 0.776194 1.50258 0
35.9050027319 4.20498634063 1.45711 0.738434 0
36.75 3.5 1.44548 1.13319 0
37.9883130549 4.16699578875 1.24048 1.12003 0
38.8198673991 3.67054564806 1.02601 1.17723 0
39.71 4.22 1.77306 1.13389 0
115.7456 4.43506 0.601305 1.55646 0
116.711456379 4.44247107138 0.24043 0.903824 0
117.71442 4.44587 0.277835 1.00606 0
9.91 2.94 0.36452 1.35759 0
11.96 2.98 -0.00420653 2.20091 0
13.29 2.7 0.0325518 2.08366 0
32.28 2.88 0.660324 1.84087 0
32.88 3.29 0.768134 1.69075 0
33.8169031458 2.86144512346 0.947306 1.22612 0
35.36 3.42 1.23658 1.24092 0
35.8975856695 2.8995575347 1.71437 0.539068 0
36.72 2.76 1.08833 1.21243 0
38.0083609004 3.22170793893 0.912827 0.92035 0
9.83 2.39 0.375975 1.35807 0
11.27 2.38 -0.0945628 2.20487 0
33.06 2.11 0.626408 1.91324 0
33.8982579514 1.91296267188 0.735465 1.07666 0
34.94 1.95 1.14371 1.64842 0
36.0102790409 1.98894800685 1.79564 0.300725 0
37.1419007464 1.94299686531 1.40522 0.571368 0
37.7490161631 1.81503801155 0.411553 1.20971 0
112.211941809 2.4514307785 0.79166 0.60233 0
-60.521383721999996 2.39769379662 -0.490082 1.51664 0
30.2420866918 0.764828047899 1.78278 0.371603 0
30.7979550656 0.619989603899 1.48352 0.741071 0
31.99 0.58 1.07548 1.67705 0
34.0775893468 1.07256947381 0.891246 0.881589 0
34.8570026474 0.808955901946 1.44542 0.626353 0
36.0160508128 0.718270688341 1.60986 0.414678 0
36.8847914167 0.835714258283 1.03511 0.512876 0
37.7344740072 0.8 0.757031 0.570241 0
110.308935745 1.47168181177 0.446735 0.661716 0
-51.87700000000001 0.905 -0.103833 1.78691 0
30.1419994162 0.0406265796281 1.37816 0.670668 0
32.0284928416 -0.0440725221532 0.91991 0.887902 0
33.18 0.45 0.652654 1.37315 0
34.13 0.22 0.974503 1.73468 0
34.9597323428 0.181200997045 1.19671 0.418249 0
36.1110633864 0.0636520716596 1.55264 0.528189 0
101.22 0.36 0.620073 0.680181 0
111.48 0.07 0.0318234 1.55522 0
117.21 -0.45 -0.271524 1.7831 0
-74.79000000000002 -0.17 0.537926 1.35851 0
-67.00188896399999 -0.121081193704 -0.346334 1.35072 0
-52.058736028 -0.36 -0.115165 1.22443 0
29.99 -1.25 1.67081 1.78153 0
30.74 -0.6 1.1443 1.73346 0
31.81 -1.36 0.337767 2.05262 0
34.379614544 -1.08480727201 1.35206 0.691772 0
35.0339194763 -1.31959794465 1.5883 0.715644 0
36.36 -1.23 1.41356 1.02927 0
37.028037618 -1.22557410007 1.0567 0.672372 0
38.0 -1.37 0.761052 1.06068 0
114.904091647 -0.954091646819 -0.00833891 1.14176 0
116.905 -1.1073 -0.100206 1.65737 0
-47.93666751500001 -1.25398517621 -0.384703 1.35793 0
13.61 -1.66 -0.331522 2.2066 0
27.5 -2.33 0.766857 1.03963 0
30.06 -1.96 1.10515 1.32251 0
31.67 -1.84 0.321642 2.15267 0
35.04 -1.54 1.58819 0.979942 0
35.9179648252 -1.71770312412 1.40715 0.532738 0
36.9600919239 -2.10862734202 1.33325 0.465724 0
37.54 -2.33 1.29736 1.1966 0
106.13 -2.16 0.123796 1.49699 0
-59.80000000000001 -2.0 -0.19542 1.83055 0
-59.41399999999999 -1.916 -0.446388 2.02057 0
-54.26244722400003 -1.85146833437 -0.425321 1.38766 0
-48.10000000000002 -2.37 -0.348263 1.85919 0
31.32 -2.64 1.0129 1.88829 0
32.22 -2.88 1.02158 1.76209 0
33.24 -2.86597968454 1.17077 0.730464 0
36.7 -2.73489350976 1.03901 0.754307 0
38.053672819 -2.91502929974 0.894218 0.629155 0
104.801864421 -2.84165719769 -0.140057 0.681707 0
107.65 -2.75 0.031721 1.54285 0
111.665153896 -2.69515389623 0.0737739 1.0744 0
114.84 -3.46 0.226458 1.43698 0
116.17 -3.3 -0.456412 0.852712 0
132.248954615 -2.91925 0.128753 1.14636 0
-60.68185160500002 -3.16092580251 -0.54614 1.48452 0
-60.10000000000002 -2.925 -0.398405 1.93247 0
-54.956999999999994 -2.752 -0.459007 2.08793 0
-44.125 -2.897 -0.590888 2.12242 0
-40.864027995000015 -3.27398940531 -0.00570448 1.1547 0
-40.041 -3.311 0.0962946 0.815056 0
30.42 -4.28 0.764767 1.89437 0
30.71 -3.58 0.970467 1.88687 0
32.64 -3.82 0.903476 1.78128 0
35.14 -4.32 1.17538 1.97515 0
36.013489088 -3.89 0.77603 1.05379 0
36.72 -3.84 0.889794 1.01905 0
38.61 -3.53 1.34188 0.908293 0
133.7044 -3.6616 0.209584 1.44983 0
-73.32 -3.816 -0.19178 1.25368 0
-69.90899999999999 -4.187 -0.465684 2.0394 0
-55.731987901000025 -4.36850907403 -0.436913 1.46594 0
-49.54000000000002 -4.25 -0.457774 2.01476 0
-41.446000000000026 -4.394 0.393052 0.94951 0
-40.23282225700001 -3.86804392458 0.245946 0.660323 0
-38.76799999999997 -3.778 0.0731719 1.57277 0
-38.291 -4.224 0.345471 0.739746 0
29.9837230611 -4.92021843338 0.512907 0.594038 0
32.08 -5.08 0.647543 1.94618 0
33.1826481289 -4.7160278067 0.926844 1.0366 0
34.3473024938 -4.96 0.926047 1.01616 0
35.0463984557 -4.92806426567 1.01504 0.751171 0
35.9628561894 -5.01424240154 1.20087 0.878895 0
37.1601330872 -5.35890987388 0.967076 1.02762 0
38.62 -5.3 -0.148987 1.87828 0
119.752 -5.01410714714 0.173723 1.24085 0
-49.92615849800001 -5.41896770963 -0.324098 1.13747 0
-49.183209267999985 -5.40570202747 -0.383656 1.40368 0
-45.53421023599998 -5.46110511786 -0.145835 1.44146 0
-44.89859933499997 -5.41187311354 -0.262653 1.13615 0
-44.06857028799999 -5.30913854278 -0.22918 0.71177 0
-42.97429711000001 -5.10921119615 -0.144694 0.699836 0
-42.04086816300003 -4.99458616898 -0.379777 0.909241 0
-41.09409233100001 -5.28177211362 -0.0244428 1.10204 0
-39.915214902 -4.95604616999 0.638563 0.70884 0
-38.98763066700002 -5.11142383667 0.421413 0.593697 0
-38.02135852700002 -4.90311407348 0.341557 0.603571 0
31.06 -6.28166111658 0.715363 1.11036 0
34.06 -6.02 1.12328 1.83253 0
35.74 -6.186 0.67979 1.38759 0
110.3449 -5.7987 0.151928 1.45075 0
110.9397 -6.4184 -0.132974 1.68434 0
-69.89999999999998 -6.3249115375 -0.501203 1.54053 0
-49.92996685100002 -6.17066394315 -0.0390245 1.05092 0
-48.670000000000016 -5.51 -0.479708 2.10508 0
-48.080043191000016 -5.65571676794 -0.534225 1.28517 0
-46.911673307 -6.14984520737 -0.133074 0.987433 0
-46.08810595599999 -5.83089404427 -0.131404 1.42237 0
-39.583923776000006 -5.54366596361 0.227042 0.78162 0
-39.40980000000002 -6.1682 -0.0672559 1.84941 0
-38.314789195 -5.83264921114 0.322068 0.528752 0
-36.940668636 -5.99658024667 0.416384 0.519678 0
-36.112879534 -5.99535552285 0.513415 0.541579 0
-35.28076679399999 -6.33723076708 0.139625 0.70702 0
20.84 -7.41 0.700242 0.94254 0
30.8574896021 -7.05218700611 0.969136 0.958298 0
33.52 -6.94 0.687212 2.02888 0
36.99 -7.4 0.290565 1.78753 0
37.67 -6.83 0.544668 0.972647 0
38.7733 -7.1981 1.33321 1.04504 0
110.896109025 -6.64855113102 0.220001 1.11869 0
111.503 -6.6657 0.104967 1.54373 0
-74.787885141 -7.07989650862 -0.0835814 1.0249 0
-73.97818750599998 -7.38070923676 0.0629773 1.20192 0
-55.35896693199999 -7.04741733103 0.171948 1.15108 0
-47.56 -6.64 0.267918 1.51479 0
-47.329999999999984 -6.75 0.0160682 1.70542 0
-43.559000000000026 -6.657 0.0282117 1.71826 0
-39.66610714900003 -7.3279337066 0.457194 1.07517 0
-39.00240240599999 -7.22121711178 0.179233 0.630572 0
-37.56484408900002 -6.63365924864 0.562806 0.612988 0
-37.018649203999985 -7.02137573844 0.550472 0.416235 0
-36.097368957000015 -7.12789393163 0.721919 0.46364 0
-35.113999999999976 -6.828 0.483934 1.02335 0
20.72 -8.45 0.643098 1.03999 0
28.53 -8.28 1.06136 0.903996 0
31.0771114993 -7.77383910392 0.880352 0.763696 0
31.6258292481 -7.95582924808 1.45111 1.39476 0
33.2084056967 -8.26821247953 0.866352 0.709271 0
35.31 -8.31 1.51532 1.05202 0
35.6986184074 -7.76 1.19982 0.934681 0
-74.793 -7.651 -0.114208 1.78068 0
-74.118619712 -8.02910995442 -0.235751 1.12633 0
-40.15279169500002 -7.86663188836 0.197069 0.830855 0
-37.92099541099998 -7.9545229376 0.545773 0.665476 0
-37.08692163799998 -8.13508541938 0.675016 0.536073 0
-35.95519316899998 -8.07443311293 0.644475 0.336878 0
-35.29227650399997 -7.97988243038 0.352835 0.712102 0
13.55 -8.64 0.402213 0.698936 0
32.0537002226 -8.57314988872 1.01364 1.05199 0
33.232816878 -9.07795946012 1.17022 0.417833 0
33.9110323931 -9.07145379127 1.24334 0.371997 0
34.9392585527 -9.17755054269 1.6145 0.425469 0
140.4141 -8.5181 0.443479 1.3121 0
-63.35000000000002 -8.8 -0.576244 2.17127 0
-47.59262734499998 -8.82265289493 -0.210902 1.14901 0
-40.68000000000001 -9.24 -0.213399 2.16626 0
-40.29829817900003 -8.88600313462 -0.227007 1.5154 0
-39.05000000000001 -9.15 -0.0824344 1.93142 0
-38.03741502600002 -9.11081106441 0.283774 0.57303 0
-37.08453278799999 -8.95034014342 0.405191 0.727113 0
-36.05122613499998 -8.83453453799 0.564296 1.01511 0
-35.12700000000001 -8.67946077365 0.357461 0.704791 0
28.7 -10.06 0.758564 0.93683 0
29.92 -10.25 1.07845 1.02181 0
31.14 -10.22 1.01518 0.876522 0
33.0946218246 -9.88971881113 0.895094 0.574827 0
33.9315062252 -9.96477882921 0.362827 0.559027 0
34.9479318178 -10.0017471996 0.881537 0.412619 0
35.65 -10.11 0.538777 1.0436 0
37.917 -9.7896 0.166937 1.8314 0
-66.21205662800003 -9.81845752922 -0.475869 1.49419 0
-64.79599999999999 -9.533 -0.545362 2.1793 0
-48.15293638100002 -9.90231654706 -0.189085 1.01982 0
-46.660000000000025 -10.2 -0.286984 2.21151 0
-40.145416564000016 -9.67151338816 0.00405695 0.740689 0
-38.77999999999997 -10.43 0.767315 1.46391 0
-38.06742195099997 -9.88054345087 0.244015 0.712074 0
-36.82385948199999 -10.1433176984 0.281686 0.765327 0
-36.264505079 -9.67211605516 0.19172 0.612593 0
28.87 -11.14 0.928749 0.908031 0
31.07 -10.95 0.921469 0.834564 0
31.74 -11.19 1.14362 0.782007 0
33.9731556322 -11.0363884532 0.859317 0.358557 0
35.0718413368 -10.9741264212 0.512052 0.511385 0
35.8087196203 -10.6803882221 0.829427 0.60847 0
130.64 -11.42 0.12632 0.687007 0
-58.72000000000003 -11.47 -0.262931 2.07983 0
-55.797000000000025 -10.873 -0.201236 2.00408 0
-48.83511000499999 -10.6206020824 -0.00478086 1.29767 0
-47.839999999999975 -10.65 -0.201726 2.10317 0
-47.075973327999975 -11.1169092171 -0.0973292 1.45252 0
-46.45999999999998 -10.54 -0.11329 2.15398 0
-40.196647982 -10.8451654633 0.178632 0.735774 0
-39.09571205899999 -11.24 0.170142 1.02929 0
-37.80710845300001 -11.0210313956 0.414319 0.580499 0
-37.19 -10.73 0.344401 1.41307 0
26.1362917014 -12.1538821863 1.08178 1.05649 0
27.48 -11.63 1.24555 0.950153 0
29.6738538301 -12.0657757328 0.890261 0.737485 0
31.45 -11.82 1.05505 0.829393 0
34.1670270541 -11.8669141083 0.143826 1.35921 0
49.3606 -12.2825 1.6175 0.630762 0
130.818940446 -12.073229033 -0.715795 1.13945 0
136.783 -12.1874 -0.212825 1.71888 0
-58.10377081600001 -11.6962985578 0.102682 0.982688 0
-57.02450817900001 -11.5977208155 0.186798 0.9694 0
-51.29198253499999 -11.9719825349 -0.0746925 1.28252 0
-49.54000000000002 -11.72 -0.621528 2.36669 0
-48.946954577999975 -12.071322618 -0.331981 1.48272 0
-48.139809515000024 -12.0094991093 -0.055614 0.93149 0
-44.90300000000002 -12.409 0.157195 1.95844 0
-39.17670662699999 -12.1617775212 -0.316363 1.44505 0
-37.94999999999999 -11.83 -0.084981 1.70774 0
25.02 -13.14 1.05905 0.834348 0
25.83 -13.46 1.12507 1.0597 0
28.21 -12.81 1.11618 1.12108 0
30.2270678346 -13.132864344 1.03918 0.686727 0
30.83805522 -13.183502384 0.881315 1.16236 0
32.0095243076 -13.3537728776 0.0461681 1.06196 0
34.2318475901 -12.893884683 0.0459023 1.37821 0
35.0378917556 -13.3408931214 0.329493 1.19341 0
35.9248090302 -13.3946322792 0.233821 1.48983 0
37.1239064372 -13.27311315 0.334615 1.28953 0
49.9212 -13.4584 0.443735 0.839701 0
131.133 -12.8436 -0.297777 1.82274 0
132.473 -12.6869 -0.103541 1.63578 0
-67.0 -13.48 -0.0150372 1.15624 0
-60.19999999999999 -12.951437077 -0.0950234 1.4072 0
-49.93359746200002 -13.1937444324 -0.19553 0.98139 0
-49.053007879999996 -13.3630975818 0.125894 0.776603 0
-48.10003049199997 -13.0247247382 -0.102721 0.875074 0
-44.581999999999994 -13.432 0.127605 1.93491 0
-39.092863308999995 -12.5649563807 -0.0907942 0.543553 0
29.38 -13.6 1.00461 0.736082 0
32.8028405704 -13.6373314186 0.473479 1.49385 0
33.9697718773 -13.7221682672 0.412309 1.0408 0
34.750802797 -13.9105630456 -0.0253915 1.42058 0
48.4537 -13.6426 0.646616 1.09461 0
50.0608 -14.1368 0.151841 0.927939 0
131.58 -14.37 -0.91168 1.1553 0
143.175 -13.9574 0.116602 1.65581 0
-55.77699999999999 -14.322 -0.0280402 1.97422 0
-48.95822020100002 -13.6937371432 0.0811086 1.07457 0
-48.066626367000026 -13.6176885318 0.0906821 0.809448 0
-47.20897136899998 -13.7893279974 0.342373 0.650853 0
-46.14884476200001 -14.0974000893 0.331593 1.00279 0
-39.57499999999999 -13.72 -0.0636034 1.79324 0
13.45 -14.91 1.65003 1.27766 0
23.15 -15.25 0.884998 0.800931 0
24.8 -14.79 0.896162 1.1071 0
28.19 -15.28 1.01428 0.913935 0
35.3155570979 -15.2476048244 0.645912 0.646119 0
39.25 -15.08 0.258088 0.791383 0
47.9993 -14.8843 0.363467 0.858913 0
48.7467 -14.5397 1.38278 0.905422 0
50.2911 -14.9344 0.281425 0.883968 0
132.23 -15.45 -1.0561 1.27122 0
143.0 -15.0 -0.119815 1.01383 0
-64.43700000000001 -14.895 0.32435 1.45843 0
-60.014999999999986 -14.533 -0.610706 2.36225 0
-59.137681068999996 -15.4491625408 0.0782011 0.982048 0
-57.161 -15.38 -0.446452 2.15234 0
-50.863 -15.137 0.192524 1.64031 0
-49.08600000000001 -15.264 0.15403 2.09196 0
-45.65699999999998 -14.649 0.260146 2.05329 0
-44.504999999999995 -15.468 0.187384 1.87795 0
-44.31099999999998 -15.058 0.28352 1.36451 0
-39.519000000000005 -15.36 -0.343155 2.20032 0
-39.434000000000026 -14.931 0.195397 1.07141 0
26.02 -15.75 0.787461 0.798952 0
33.5708797231 -16.1321600494 0.125542 0.693239 0
34.975 -15.682 0.366166 1.89487 0
46.4263 -15.7323 0.734375 1.17655 0
47.6277 -15.58 0.071343 0.896988 0
48.8263 -15.8636 0.510013 0.90059 0
128.76 -15.68 -0.30618 1.83904 0
134.1 -16.47 0.177552 1.39815 0
136.77 -16.32 -0.0488118 1.12999 0
179.45 -16.302 0.366461 0.973403 0
-55.691483436 -15.900370859 0.099561 0.931867 0
-51.809934038999984 -15.6972048109 0.36343 0.757635 0
-48.014999999999986 -15.642 0.626304 1.42712 0
-44.829999999999984 -15.71 0.188341 1.24157 0
-39.627999999999986 -15.989 -0.265591 1.97127 0
12.4278 -17.217 0.221063 1.78043 0
13.258605142 -17.2139389441 0.541483 1.34621 0
13.8378 -17.334 0.241819 2.07794 0
35.03 -17.44 -0.288849 1.83551 0
36.8300003115 -16.8600001557 0.218017 0.684765 0
37.97 -17.24 -0.057757 1.06349 0
38.99 -16.99 0.421034 0.961443 0
46.8570616033 -17.1843080164 -0.0370565 0.864284 0
124.086439782 -17.3906103167 0.0690763 0.687899 0
124.954145582 -17.2369178338 0.0203194 0.597816 0
125.631067523 -17.0482410507 0.12527 1.19735 0
135.24 -16.7 0.0472729 1.39504 0
137.764211794 -17.22021453 -0.0573402 0.97834 0
177.761 -17.439 0.271634 1.02009 0
-60.610000000000014 -17.188 -0.0647185 1.86777 0
-57.89911242300002 -17.2880749486 0.0391405 0.9958 0
-52.164850081 -16.6371499194 0.185541 1.08357 0
-50.346000000000004 -16.57 0.51988 1.6185 0
-46.81900000000002 -17.27 0.183636 1.97877 0
-43.85012668799999 -16.6994938141 0.283151 1.33787 0
-39.80500000000001 -16.584 -0.207523 1.94184 0
12.3304 -17.808 0.53765 1.73538 0
13.0116345889 -18.2663532429 0.1263 0.66173 0
13.8847 -18.078 0.979586 1.76005 0
19.76 -17.91 0.755955 0.811788 0
25.161894 -17.800171 0.600745 1.83054 0
45.2244329307 -18.1765566252 0.256996 0.766143 0
47.2289 -18.1369 0.749677 1.57542 0
48.423 -17.8471 0.575181 1.1626 0
49.4599 -17.7062 -0.0655041 1.18112 0
122.233317017 -18.1918168015 -0.282497 0.677144 0
123.037279657 -17.6548610729 -0.300279 0.826912 0
123.581547437 -17.6260856055 -0.272282 1.25106 0
125.64 -18.1 -0.359402 1.96798 0
134.00296 -18.499073 -0.370272 2.169 0
134.931597655 -17.8525054848 -0.271494 1.16021 0
136.102115306 -18.0168345609 -0.328835 1.02984 0
136.990044717 -17.874252202 -0.241253 0.894355 0
138.16057956 -17.838060999 -0.378385 1.14567 0
139.002731 -18.49507 -0.4724 2.02535 0
140.16716118 -18.1477332095 -0.173306 0.981025 0
140.997069984 -18.1984238052 -0.130956 1.18112 0
141.9 -18.4669 -0.245895 1.79982 0
177.374717226 -17.8617447815 0.23131 0.730453 0
178.148735429 -17.8881477877 0.546841 0.436318 0
-59.80889815299997 -18.278 0.0901118 1.12581 0
-58.210366325999985 -18.2003663256 0.0788442 1.19872 0
-54.964199432999976 -17.661321887 0.295207 0.616576 0
-51.35338397700002 -18.1582704432 0.0509467 1.49631 0
-48.68900000000002 -17.743 0.364011 1.89069 0
-48.03869639800001 -17.9782670396 0.330911 0.76914 0
-44.928999999999974 -18.092 0.412337 1.85516 0
-43.66500000000002 -18.295 0.836136 1.9244 0
-40.125999999999976 -17.844 -0.038881 1.69147 0
12.369 -18.752 0.0603518 1.56783 0
12.8283520985 -18.876804743 0.238718 0.460409 0
14.0915022963 -19.2112521221 0.569955 0.650064 0
14.9459 -18.687 0.725243 1.88262 0
15.8845 -19.175 1.09635 1.56606 0
17.5805909958 -19.2002954979 1.08312 0.649295 0
21.338223 -18.53956 0.700378 1.82973 0
22.162458 -19.389299 0.337578 2.12869 0
23.500484 -18.62088 0.591478 1.8294 0
25.196014 -18.78417 0.907479 1.6397 0
30.7713658321 -19.4631708393 1.19995 1.00914 0
46.1870549766 -18.8783298598 0.639513 0.867731 0
47.2292839431 -19.0157284552 1.04792 0.975797 0
48.9785 -19.3179 0.214684 0.900648 0
121.41867611 -19.4301387161 -0.403373 1.33978 0
121.746735835 -18.9406080526 -0.139072 0.633964 0
130.25 -18.98 -0.0305232 1.93056 0
131.498805 -19.498399 0.100588 1.67944 0
132.000711 -19.499266 0.183066 1.63453 0
133.234299911 -19.2665268507 -0.115739 1.32494 0
134.272585304 -18.6676181172 -0.398045 1.53226 0
134.930572079 -19.1489822789 -0.30989 0.912002 0
136.020241471 -19.2412615622 -0.48348 1.57593 0
136.977903105 -19.1833011427 -0.458208 1.28804 0
138.104161356 -18.9632624197 -0.230632 0.885046 0
139.00650167 -18.9850136309 -0.377752 0.90632 0
140.086415436 -19.0107932592 -0.354661 0.852978 0
140.964517029 -18.8308144468 -0.165915 0.714296 0
142.218386362 -19.4006114763 0.0338909 1.16125 0
179.952 -18.566 1.51643 0.582255 0
-62.50999999999999 -19.23 0.273885 1.63035 0
-60.72177571200001 -18.9380866151 0.361434 1.07171 0
-58.79986798200002 -18.6650660092 0.0763071 1.13093 0
-57.84300000000002 -19.07 -0.421155 2.09292 0
-56.619274921 -18.9897583069 0.145322 1.01157 0
-54.938963855 -19.0288554194 0.496686 0.911423 0
-52.83828881400001 -18.7670788504 0.650018 1.32057 0
-52.050208715 -18.5269359211 -0.0689204 1.61215 0
-47.55224347400002 -19.3823656372 0.487101 1.39168 0
-46.76999999999998 -18.83 0.38322 2.06242 0
-46.41684729000002 -18.5549862619 0.413645 1.1704 0
-40.968572600000016 -18.7847189003 0.0941102 0.77834 0
-40.394000000000005 -19.314 -0.112992 1.29856 0
12.9769 -19.875 0.573207 1.26737 0
13.7043158818 -20.1305930643 0.399318 1.22337 0
14.8563497233 -19.6975863843 0.785853 0.793753 0
15.689 -20.151 1.14447 1.68727 0
21.174 -19.52956 0.723623 1.82998 0
23.53 -19.9 0.767252 0.933621 0
24.537193 -20.195681 0.624866 1.78278 0
28.61 -20.14 1.00195 1.05153 0
30.8577687456 -20.14407189 0.674208 1.05962 0
44.6595 -20.0676 0.415023 0.933006 0
45.5964 -20.3428 0.162546 0.905179 0
47.0000605489 -20.0604843915 1.07121 0.906642 0
119.173007805 -20.2466252747 0.234617 0.640134 0
120.082512449 -20.0770239429 0.16449 0.565136 0
121.024321453 -19.7097989181 -0.399894 0.853778 0
121.88 -20.34 -0.14261 1.80382 0
126.49 -20.44 -0.241888 2.04854 0
129.108236918 -20.0212556166 -0.037861 1.11491 0
129.900276033 -20.1897021866 0.00589587 0.825877 0
130.902011303 -20.0936888803 -0.0356873 0.773335 0
132.105985418 -19.8702256398 0.0516059 0.87142 0
133.080418007 -20.4095074257 -0.119944 0.793337 0
133.890652114 -19.7270232062 -0.321087 0.717158 0
135.017660217 -19.9557061575 -0.360408 1.0471 0
136.100525991 -19.8294351502 -0.310266 1.17205 0
136.990475839 -19.8835444546 -0.285665 0.762458 0
137.972067314 -20.0932327651 -0.330751 0.690114 0
139.018975772 -19.8707059894 -0.196278 0.813307 0
139.924477995 -19.9675819761 -0.242397 0.806239 0
141.053982746 -19.8783913298 -0.290715 0.621528 0
142.189982637 -20.2164957953 -0.151503 0.907816 0
146.15 -20.05 0.20914 0.806647 0
-62.5 -19.5 0.591654 1.44946 0
-56.74988602600001 -20.4488860255 0.188401 1.1188 0
-55.69966945800002 -20.4759446313 0.239786 0.792489 0
-53.81269066499999 -20.265525405 -0.299521 0.995655 0
-50.33337508400001 -19.7111596776 -0.255214 0.945015 0
-47.62049814300002 -19.9759180331 0.326548 0.937742 0
-45.81542068499999 -20.2863763601 0.401486 1.31641 0
-44.71800000000002 -20.236 0.353142 1.93868 0
-44.149 -19.987 0.258 2.08402 0
-42.89999999999998 -20.45 -0.0271227 1.21617 0
14.3957172173 -21.1023084292 0.469961 0.947171 0
14.9270413068 -21.2416438298 0.67061 0.837166 0
17.3698860602 -21.0420499786 0.889666 1.10773 0
21.215712 -21.36191 0.476268 2.22971 0
23.771767 -21.403549 0.673522 1.78078 0
26.2908705762 -20.8779776779 0.304328 1.51342 0
27.2442493985 -21.0210625795 0.541531 1.41289 0
28.9993186957 -20.86 0.657826 1.06006 0
29.8473131721 -20.6332829303 0.785073 1.00762 0
30.9133370027 -20.7533370027 0.240696 1.09985 0
47.1489074232 -21.324208722 0.764705 0.691935 0
47.949382976 -21.2799970525 0.0886933 0.564282 0
116.82 -20.75 0.183322 1.45488 0
117.64 -20.89 0.0487539 1.54243 0
119.106392044 -20.7209157751 0.524378 0.693046 0
119.904766702 -20.96400064 0.438035 0.414422 0
120.887305941 -21.1589486963 0.0981344 0.821254 0
129.290330092 -21.0003669672 -0.0416515 1.32525 0
130.041911993 -21.2711914397 -0.203958 1.06165 0
131.48478092 -21.2560509131 -0.207589 1.54055 0
132.173327651 -20.8409766786 -0.311118 1.30339 0
133.26982684 -20.9920049357 -0.0618393 0.985452 0
134.050571018 -21.0596154564 0.00643216 0.72006 0
134.907876482 -20.8011215273 -0.139757 0.918253 0
136.191410638 -20.9891629165 -0.160257 0.79127 0
137.202217255 -20.9932206119 -0.102198 1.29701 0
137.994864678 -21.2629993013 -0.404336 1.4836 0
138.981775999 -21.0299013943 -0.257629 0.67882 0
140.111712108 -20.9905581312 -0.232557 0.835933 0
141.217629505 -21.026858477 -0.318422 0.896001 0
142.030352739 -20.8272573873 -0.292581 0.726007 0
145.0 -21.0 -0.0368877 1.01364 0
-59.884000000000015 -20.637 -0.00821826 1.65534 0
-57.476 -21.463 -0.460794 2.11807 0
-54.184000000000026 -21.434 -0.0451556 1.92368 0
-51.328040826000006 -20.6709795869 -0.480596 1.13147 0
-48.77373795300002 -21.0533028113 -0.040608 1.03775 0
-47.87367602400002 -20.700667371 0.621734 1.2211 0
-46.20127312300002 -21.0170832971 0.3757 1.36666 0
-44.76400000000001 -20.998 0.628726 1.27375 0
-43.80099999999999 -21.222 0.733913 1.839 0
-42.86099999999999 -21.29 -0.112707 2.00131 0
-42.00400000000002 -21.055 -0.211184 1.98643 0
-40.72500000000002 -20.617 -0.0437367 1.2716 0
13.986 -21.759 0.108302 1.49854 0
15.8437899631 -22.0831050184 1.14132 0.854852 0
18.13 -21.75 1.41766 1.34784 0
25.446911 -21.9464 0.610814 1.92814 0
26.37 -21.9 0.392765 2.25538 0
27.27 -21.89 0.523588 1.90317 0
28.19 -21.95 0.270366 1.98039 0
29.2117876791 -22.2612093123 0.743555 1.43062 0
30.3722016382 -21.874706423 0.235805 1.07182 0
30.9339888218 -21.92 0.151166 1.04953 0
43.3721 -21.7501 0.934838 0.778423 0
45.4 -22.48 0.94529 1.49577 0
45.9366681952 -22.3263664734 0.707867 0.488747 0
46.7271371204 -21.910492645 0.733862 0.560017 0
47.8427526902 -21.8527474174 -0.163082 0.911243 0
115.44 -22.49 0.0166874 1.59863 0
115.89 -21.56 -0.239029 1.77304 0
116.84 -21.92 0.463224 0.930613 0
117.876689035 -22.243115 0.733534 0.645135 0
119.02244205 -21.8951190992 0.485666 0.601619 0
119.838942888 -21.5794555198 0.508761 0.262117 0
122.031902616 -21.5743105281 -0.172335 0.859065 0
123.285054732 -22.0832700032 -0.186647 1.38022 0
123.9724 -22.2047 -0.205161 2.00537 0
129.345245758 -22.2726820648 -0.244159 1.06609 0
129.989033355 -21.7345304246 -0.0978198 1.45121 0
131.070815209 -22.141012963 0.0884967 0.99378 0
131.993257702 -22.0897139229 -0.0218602 0.945913 0
133.099627233 -21.8353084819 0.112757 0.656937 0
133.99070728 -21.7493274074 0.5805 0.638347 0
134.77419961 -21.7461084631 -0.036349 0.745326 0
136.012787 -21.522038 -0.303109 2.12366 0
136.99231 -21.502054 -0.0984952 1.83275 0
137.974582871 -21.5050051574 -0.212423 1.34426 0
139.498779 -21.500164 -0.270054 2.1815 0
139.772120367 -22.1274418053 -0.354147 1.48604 0
140.890062007 -21.9387544882 -0.317953 1.04089 0
142.118578652 -22.0203510692 -0.323078 0.823163 0
143.003671807 -21.9375853152 -0.2475 0.793173 0
143.5103 -22.3032 -0.293086 2.01325 0
146.48 -22.44 -0.783236 1.16598 0
166.454 -22.3073 0.527871 1.26704 0
-59.94400000000002 -22.277 -0.165364 1.2939 0
-57.609962489 -21.6590750229 -0.0710035 1.17211 0
-56.00235404900002 -22.0 0.10579 1.19375 0
-52.839040694000005 -22.4587209257 -0.560437 1.23534 0
-51.28509848700003 -21.805948701 -0.482639 0.793598 0
-49.09566833100001 -21.7791891321 -0.119208 1.05882 0
-47.62860479599999 -22.4030728575 0.268627 0.902868 0
-46.733000000000004 -21.68 0.595246 2.00544 0
-43.364875874999996 -21.9900005005 -0.0549916 0.626267 0
-41.99429042899999 -21.9459568473 0.245299 0.840017 0
-41.428999999999974 -21.784 -0.17994 1.69828 0
14.75 -22.8 0.375286 1.44967 0
17.2037900144 -22.562883056 1.60704 0.716514 0
18.76 -23.17 0.741457 1.37577 0
20.195551 -22.993059 0.743507 2.02543 0
20.923941277 -22.9992341153 0.662473 1.4689 0
22.206787 -22.853821 0.4999 2.1306 0
24.660793 -23.38039 0.612818 1.8765 0
26.007572328 -23.1921872619 0.708781 1.30334 0
27.3368721013 -22.6910112069 0.406165 1.45463 0
28.2987936088 -22.9796081333 0.514596 0.929218 0
29.0731505862 -23.0037949875 0.813543 0.988075 0
30.020107464 -22.9805910519 1.35466 1.36144 0
34.49 -23.4 -0.370669 1.94261 0
35.0257005609 -23.39 -0.198638 1.26466 0
44.1525217763 -23.0752640368 1.17395 0.386698 0
44.9201144189 -22.7821991373 1.116 0.513184 0
46.0135481423 -22.6795156886 0.735657 0.765863 0
46.74 -22.52 0.293017 1.97652 0
47.6957781251 -23.098834192 -0.0319478 0.743606 0
114.23 -22.64 0.23852 1.44588 0
117.358228781 -22.9479834661 0.239412 0.976042 0
117.81 -22.86 0.593195 0.987678 0
119.16 -23.15 0.625007 0.68228 0
119.59 -22.91 0.510136 1.04324 0
122.93 -23.0 -0.180907 2.04642 0
129.042538925 -23.3423575367 -0.482225 1.04198 0
129.896301993 -23.0878296905 -0.149665 1.08289 0
131.176527051 -22.9753505619 -0.101434 1.2786 0
132.261369077 -23.494598634 0.0707915 1.57281 0
133.261399498 -23.0695207902 0.00848046 1.54001 0
134.005868114 -23.2206516141 0.0837606 0.928411 0
134.932154 -23.480302 -0.0837289 2.17732 0
139.0811 -22.9126 -0.357026 1.40846 0
140.076894201 -22.9544943552 -0.472652 0.954829 0
140.917505237 -22.7171199947 -0.436703 1.50595 0
142.205386232 -22.9957533691 -0.106419 0.905485 0
143.225181001 -22.5796227066 -0.23812 1.38471 0
143.679000316 -23.0439204149 -0.12423 0.820466 0
149.02 -23.25 -0.0865259 0.597612 0
-54.99059706600002 -22.9269623861 -0.48342 1.15535 0
-52.63465770099998 -22.7951061394 -0.575454 1.23847 0
-51.10531579899998 -22.8304456541 -0.2566 1.04205 0
-49.71705112000001 -23.2728635113 -0.0426106 0.901855 0
-46.94889201199999 -23.2568212602 0.344973 0.530044 0
-45.675026823999985 -23.151393335 0.292382 0.609119 0
-45.156000000000006 -23.324 0.896182 1.13494 0
-44.14031299800001 -22.9227832514 0.419599 0.871263 0
-43.19999999999999 -22.6 0.526592 1.03504 0
17.07 -24.3 1.33756 1.22951 0
17.94 -23.73 0.664008 1.40785 0
20.8999517884 -23.7099684131 0.608016 1.46937 0
21.782303 -24.11351 0.713395 1.87884 0
24.0211186758 -23.9489878647 0.837667 1.44021 0
24.9596764883 -23.8510244537 0.862306 1.35894 0
26.0808818171 -23.6592504555 1.26967 1.53403 0
27.1670323104 -23.8706013535 0.619319 0.95151 0
28.158260224 -23.8614761736 1.07263 1.40997 0
29.1857371331 -24.0809042431 0.87069 0.59299 0
31.2461028955 -23.562992528 0.383699 0.816623 0
34.49 -24.06 -0.396335 1.96744 0
35.0152098746 -24.2454755549 -0.342922 1.33987 0
45.673 -24.1822 0.739336 1.05165 0
47.31 -24.28 -0.164281 1.68583 0
47.54 -23.8 -0.176072 1.68682 0
115.230876308 -24.0872330351 0.0603522 1.1831 0
116.352625953 -24.2642912632 0.0172496 0.371197 0
116.668912276 -24.022516214 -0.0868425 0.655021 0
117.667542433 -23.9895987645 0.135752 1.23048 0
119.064309056 -23.9681637946 0.393182 1.20403 0
119.984428214 -23.9448094048 0.539659 1.12477 0
129.102183 -24.000019 -0.166103 2.17582 0
129.865671012 -24.1500887194 -0.0320731 1.19397 0
131.164541931 -24.0494847955 -0.122181 1.32221 0
132.294028597 -23.7892860931 0.0200346 0.865311 0
133.250003811 -24.3048685719 -0.127218 1.24859 0
133.88480615 -23.8943478107 0.137413 0.692188 0
134.791312918 -23.9991664653 -0.261933 1.56826 0
139.5796 -23.8422 -0.497971 2.10592 0
141.159034512 -24.1973345455 -0.117518 1.22935 0
141.80718582 -24.3236034412 -0.240945 1.09814 0
142.90039803 -24.0125935342 -0.184617 0.943681 0
144.050061584 -23.747255636 -0.112084 0.80617 0
144.997102384 -23.8664245563 -0.153957 0.845788 0
148.5 -24.5 0.238462 0.93 0
150.0 -24.5 -0.856945 1.15609 0
-58.228999999999985 -24.088 -0.493056 2.07539 0
-54.03699999999998 -24.459 -0.0539757 1.87366 0
-51.50400000000002 -24.452 0.05948 1.39304 0
-50.99869040499999 -24.226121748 0.0363021 1.1868 0
-50.12147783400002 -23.7668289249 0.133645 0.881543 0
-47.71600000000001 -24.093 -0.0375798 1.88581 0
-47.354697767999994 -24.0654438295 -0.0372113 0.762529 0
-46.404736705000005 -23.6060134671 0.751491 0.666062 0
-45.35000000000002 -23.6 -0.202267 1.8882 0
22.857294 -25.475531 0.598207 1.87969 0
24.2823648114 -24.7287453581 0.821886 1.09549 0
25.1726595589 -24.8787214533 0.823595 0.87749 0
25.808927766 -24.9653853687 0.759593 0.917263 0
27.1095765098 -24.8390471471 0.860473 1.41087 0
28.1609462894 -24.8483702793 1.32576 1.49866 0
29.2180465671 -24.8925341832 1.16342 1.49788 0
30.309410187 -24.9598033957 1.61804 1.38578 0
32.26 -25.47 -0.487878 2.07268 0
44.7436 -24.7033 0.752447 0.746357 0
46.9995118483 -24.935025412 0.0695576 0.755847 0
113.66 -24.89 0.72676 1.18075 0
114.8 -24.96 0.437888 1.37195 0
116.114916918 -24.8168074017 -0.126078 1.33833 0
116.968650597 -25.0290253057 -0.0250545 1.12018 0
118.75 -24.98 0.0159139 2.00883 0
123.01 -25.29 -0.0831001 2.00306 0
128.3 -25.04 -0.078738 2.19605 0
129.1026 -24.5007 -0.131825 2.12285 0
